x,y,z
-5.889734,226.700020,64.765108
1.466190,222.500014,64.765209
-1.068772,250.300002,64.766318
-44.799253,218.800020,64.766812
-1.712792,245.200014,64.768434
6.356607,224.600005,64.769477
-48.052609,222.900009,64.770252
-0.958211,224.600005,64.771926
-47.450179,222.900009,64.772254
-56.858873,301.100016,64.772725
-56.044424,301.100016,64.775985
-49.508929,301.000023,64.779884
-15.123382,226.800013,64.781916
152.384233,301.200008,64.782310
96.671456,194.700015,64.784908
-1.731090,247.800016,64.787310
-0.384934,247.800016,64.787483
119.395578,287.400007,64.788026
-5.276780,226.800013,64.794099
-4.661216,226.800013,64.794475
7.578988,224.700022,64.797270
-55.248225,301.200008,64.800745
0.870941,224.700022,64.800781
-0.348779,224.700022,64.800829
-20.845412,235.800004,64.801455
99.547178,284.100008,64.803302
120.219326,287.500024,64.812589
121.001852,287.500024,64.814752
-25.472036,231.400013,64.826155
-1.569194,224.800014,64.829516
0.261198,224.800014,64.829665
-15.752462,227.000022,64.837921
177.063906,299.800014,64.840180
-27.818948,304.800010,64.845234
-28.345662,229.300022,64.846599
-54.469454,301.400018,64.847004
46.552220,219.100022,64.850122
8.196029,224.900007,64.854354
-21.503110,236.000013,64.854884
177.928138,299.800014,64.856982
-46.910778,223.200011,64.861441
121.869409,287.700009,64.862150
-50.390750,301.400018,64.862859
-1.059294,248.100019,64.865851
176.318622,300.000024,64.866972
-53.671712,301.500010,64.871728
-52.362728,223.300004,64.872962
-1.048537,245.600009,64.874202
-27.376887,231.600022,64.876819
-2.334726,240.700006,64.876878
-22.152467,236.100006,64.880794
-0.950887,222.900009,64.881730
8.810222,225.000000,64.882547
6.978524,225.000000,64.884329
122.695792,287.800002,64.887166
99.206907,193.200004,64.893550
2.054987,220.900011,64.893973
-17.824668,334.700012,64.894074
1.455536,220.900011,64.894104
178.853405,299.900007,64.895785
-52.873325,301.600003,64.896435
-45.121014,223.300004,64.896613
-52.057040,301.600003,64.899606
-18.409017,229.400015,64.900655
0.285682,245.700002,64.900672
-42.865032,248.600006,64.902610
100.566542,194.800007,64.904743
5.100562,223.000002,64.909267
180.529356,299.800014,64.909559
4.495402,223.000002,64.909625
0.864286,223.000002,64.910841
-18.740603,334.800005,64.912117
179.720747,299.900007,64.913309
3.660876,248.300004,64.917427
-16.389805,227.300000,64.922428
-51.257652,301.700020,64.924288
-0.381797,245.800018,64.927083
-44.537297,223.400021,64.927739
-24.733934,236.300015,64.929110
123.565984,288.000011,64.934891
-52.064282,254.100013,64.935899
5.708271,223.100019,64.937979
-1.557209,223.100019,64.939845
-25.272173,229.600000,64.940393
120.812571,192.700005,64.943445
-2.183197,225.200009,64.944720
-23.002809,231.800008,64.944941
-46.369728,223.500013,64.950651
-45.765597,223.500013,64.952695
0.953780,245.900011,64.953452
124.394453,288.100004,64.960229
-22.597988,234.100008,64.960313
-27.772817,229.700017,64.961571
117.138529,193.300009,64.968097
182.331705,299.900007,64.968127
-19.668765,335.100007,64.968866
0.259319,223.200011,64.969099
-0.346424,223.200011,64.969099
-40.931296,223.500013,64.969224
121.394372,192.700005,64.970523
181.520391,300.000024,64.971143
96.420968,195.300007,64.973199
-17.021261,227.500010,64.978349
183.205080,299.900007,64.987153
-43.972662,223.600006,64.987916
-26.795521,232.000017,64.990687
-20.702474,234.200001,64.992702
-10.748613,225.400019,64.995605
-10.137041,225.400019,64.996386
-2.164613,223.300004,64.997917
-39.740106,223.600006,65.002435
185.710847,299.700022,65.003204
-39.135301,223.600006,65.004510
184.894907,299.800014,65.004694
-38.530451,223.600006,65.006572
125.267315,288.300014,65.008289
-19.877397,232.000017,65.008593
-37.925556,223.600006,65.008628
124.130106,192.400014,65.011668
0.857633,221.300006,65.011698
118.289685,193.300009,65.016645
111.909628,194.100010,65.017617
120.419252,193.000007,65.017897
101.274121,195.100009,65.018189
-26.178104,232.100010,65.020496
95.660692,281.700015,65.021884
-11.977001,225.500011,65.022749
-33.084857,223.600006,65.024728
-41.572878,223.699999,65.025282
117.774427,193.400013,65.025783
-9.529674,225.500011,65.025949
-41.660154,322.200012,65.027535
128.416824,191.700006,65.028167
184.141421,300.000024,65.028244
-46.417168,302.100015,65.028787
-1.702179,243.700004,65.028971
-40.362915,223.699999,65.029436
127.355659,191.900015,65.029502
100.668156,285.100007,65.030593
-2.798126,225.500011,65.031058
111.401212,194.200015,65.031272
101.827502,195.100009,65.031940
126.298356,192.100012,65.032864
112.476373,194.100010,65.037811
-37.337315,223.699999,65.039754
0.257208,221.399999,65.041119
124.719262,192.400014,65.041596
-36.732066,223.699999,65.041792
-21.991391,234.400010,65.045142
116.745591,193.600011,65.045249
113.554275,194.000006,65.045798
-21.355793,234.400010,65.046686
-43.406916,223.800015,65.048116
-27.185938,230.000019,65.048242
-13.206375,225.600004,65.049720
123.670805,192.600012,65.049791
-42.196652,223.800015,65.052277
105.054569,194.900012,65.053898
-8.921744,225.600004,65.055472
116.231990,193.700004,65.055567
-32.494089,223.699999,65.055752
109.314787,194.500005,65.055859
1.624281,246.300006,65.059006
110.385430,194.400012,65.059620
127.952421,191.900015,65.062481
-28.170753,227.900004,65.064615
157.629037,298.400021,65.065449
122.104108,192.900014,65.065533
115.718889,193.800008,65.066272
114.123726,194.000006,65.067112
186.714625,299.900007,65.067184
125.836527,192.300010,65.069127
107.740867,194.700015,65.069437
105.612397,194.900012,65.069741
-0.944843,221.500015,65.070444
108.808303,194.600010,65.071201
104.551136,195.000005,65.071744
109.878063,194.500005,65.074295
118.928540,193.400013,65.075213
115.206301,193.900013,65.077358
110.950232,194.400012,65.078759
-42.820925,223.900008,65.079260
102.434027,195.200014,65.079325
-33.720234,223.800015,65.080917
-11.375283,225.700021,65.081286
107.235491,194.800007,65.085739
-31.902748,223.800015,65.086776
108.302128,194.700015,65.086871
114.694190,194.000006,65.088820
113.102341,194.200015,65.091902
-19.089213,230.100012,65.097344
158.517671,298.500013,65.097439
126.958632,192.200005,65.098673
96.880960,194.000006,65.099531
-1.546623,221.600008,65.099728
-0.343915,221.600008,65.099865
119.507396,193.400013,65.100580
126.229095,288.700008,65.101612
-36.159074,223.900008,65.101981
106.730366,194.900012,65.102357
-42.586845,322.600007,65.105444
125.374997,192.500007,65.105844
-26.585835,230.200005,65.106595
-34.341311,223.900008,65.108013
103.544748,195.200014,65.108311
-12.605521,225.800014,65.108347
-25.962046,230.200005,65.108359
-31.310812,223.900008,65.117776
106.225455,195.000005,65.119278
103.897357,285.500002,65.119517
103.125143,285.500002,65.119940
102.353084,285.500002,65.120471
156.952071,298.700023,65.120935
101.581168,285.500002,65.121096
123.275602,192.900014,65.122098
104.101193,195.200014,65.123248
120.087481,193.400013,65.126395
103.041792,195.300007,65.127009
122.752774,193.000007,65.127325
96.118581,195.800006,65.128416
-49.078661,222.100019,65.132976
-35.569078,224.000001,65.133089
128.640056,288.800025,65.134573
129.430008,288.800025,65.138400
47.516850,218.099999,65.138674
104.706395,285.600019,65.142006
-8.320620,225.900006,65.142626
-17.684782,228.100014,65.148467
-30.718291,224.000001,65.148753
127.105474,288.900018,65.150011
-27.589634,228.200006,65.152091
127.894819,288.900018,65.153480
-26.971382,228.200006,65.153891
-25.734752,228.200006,65.157396
-2.149911,221.800017,65.158349
-38.940549,314.400005,65.158999
-32.534438,302.500010,65.160471
-31.713402,302.500010,65.162772
-13.842869,225.999999,65.164071
-34.978494,224.100018,65.164179
2.296952,246.700001,65.164512
-22.451602,232.600021,65.170681
-22.862282,230.400014,65.173304
159.514570,298.800015,65.173334
-3.417701,225.999999,65.175003
-33.366430,302.600026,65.179670
-26.364642,228.299999,65.184212
-30.902493,302.600026,65.186572
-28.571513,226.200008,65.186775
130.310559,289.000010,65.187502
-23.271152,228.299999,65.192604
4.748610,271.800017,65.196484
-47.320467,222.300005,65.197444
-7.714438,226.100016,65.200901
-2.779302,224.000001,65.201485
160.406721,298.900008,65.205890
105.589998,285.900021,65.210223
109.460819,285.900021,65.210825
187.971485,300.500011,65.218413
-14.468712,226.200008,65.220702
-21.839729,232.800007,65.228277
-20.577241,232.800007,65.231299
-46.794686,299.300003,65.231776
-30.100897,302.800012,65.231854
165.349531,298.700023,65.232676
106.400979,286.000013,65.232921
107.949650,286.000013,65.233046
108.724260,286.000013,65.233278
110.274136,286.000013,65.234101
-44.937131,222.400022,65.234739
131.192696,289.200020,65.236807
-30.152065,224.300003,65.237886
-34.221464,302.900004,65.241885
-1.690870,242.100000,65.254372
107.212687,286.100006,65.255731
111.088204,286.100006,65.257508
-21.217613,232.900000,65.257823
161.354387,299.100018,65.260559
-4.036416,226.300001,65.261239
-18.335474,228.500009,65.261418
164.615393,298.900008,65.263873
-19.764595,230.700016,65.265697
-1.044186,244.600010,65.269238
111.903083,286.200023,65.281045
156.535590,299.500012,65.285659
132.076383,289.400005,65.286291
-7.110295,226.400018,65.287977
166.306090,298.900008,65.289122
132.869840,289.400005,65.290856
162.249863,299.200010,65.293694
163.881218,299.100018,65.295362
46.274659,220.600009,65.296018
-29.307812,303.100014,65.298647
112.718713,286.300015,65.304703
-15.102276,226.500010,65.306127
-47.132152,261.000013,65.315646
-5.884091,226.500010,65.317798
-4.654697,226.500010,65.318590
-68.021685,300.100017,65.322131
96.683013,194.700015,65.322638
2.974194,247.300005,65.322793
-43.609908,323.700023,65.324569
-44.395703,222.700000,65.324748
-29.584178,224.600005,65.327013
163.146925,299.300003,65.327120
113.535130,286.400008,65.328485
-2.759243,222.400022,65.334427
-48.631221,222.800016,65.340185
-10.704901,224.500012,65.340477
-6.501640,226.600003,65.346164
-5.271726,226.600003,65.347052
-35.101190,303.400016,65.347141
47.077990,218.800020,65.349579
-45.620236,222.800016,65.350062
115.130198,286.500025,65.353656
115.908325,286.500025,65.355039
116.686714,286.500025,65.356559
-28.032961,226.800013,65.361512
-15.730502,226.700020,65.362680
-28.513020,303.400016,65.365380
-26.189682,226.800013,65.366828
167.320859,299.200010,65.367740
-10.100311,224.600005,65.370357
-9.490933,224.600005,65.371084
-8.881535,224.600005,65.371770
-22.305247,231.100011,65.372896
-21.678716,231.100011,65.374446
114.392281,286.600018,65.375215
-3.396273,224.600005,65.375906
-20.425521,231.100011,65.377420
-29.001713,224.800014,65.387022
99.266040,283.300018,65.387243
-11.933631,224.700022,65.397024
-11.324047,224.700022,65.397888
0.284961,245.100021,65.402716
117.547393,286.700010,65.403837
-21.061246,231.200004,65.404236
-74.627501,300.600004,65.404844
-46.263975,223.000002,65.406710
-27.707398,303.600025,65.410525
100.528359,194.700015,65.410799
-67.300749,300.500011,65.412509
169.076443,299.300003,65.416712
-22.731707,229.100013,65.422642
-75.463891,300.700021,65.423411
-13.158581,224.800014,65.424287
118.368196,286.800003,65.428460
-63.241524,300.500011,65.429127
-0.380835,245.200014,65.429395
-8.279485,224.800014,65.430611
-40.492275,319.900012,65.431178
-19.004887,229.100013,65.431446
-23.137058,227.000022,65.432757
-46.887761,223.100019,65.434057
-66.511184,300.600004,65.437597
-59.992635,300.500011,65.442389
126.594651,191.600013,65.442997
-43.872288,223.100019,65.444112
-64.887047,300.600004,65.444249
96.333551,195.100009,65.445268
-59.180188,300.500011,65.445685
168.338478,299.500012,65.446705
-64.074844,300.600004,65.447569
-16.366990,227.000022,65.448010
121.295869,192.500007,65.448809
-27.454844,227.100015,65.449768
119.189858,286.900020,65.453237
-62.450206,300.600004,65.454215
-12.554355,224.900007,65.454328
120.776916,192.600012,65.455341
-61.637759,300.600004,65.457547
-60.825217,300.600004,65.460855
-65.721017,300.700021,65.462691
-58.387077,300.600004,65.470761
46.571580,219.200015,65.470910
-17.605989,227.100015,65.474403
-16.990110,227.100015,65.475637
127.189457,191.600013,65.475863
-26.851425,227.200007,65.480363
-14.390908,225.000000,65.480494
-13.780610,225.000000,65.481514
0.951765,245.400023,65.482718
-9.333207,220.900011,65.483427
-25.620270,227.200007,65.483826
-19.643258,229.300022,65.487194
101.184034,194.900012,65.491694
-57.593334,300.700021,65.495825
120.321071,192.800009,65.496272
-26.918331,304.000020,65.498716
120.054185,287.100005,65.500969
112.890267,193.800008,65.501279
110.234177,194.100010,65.501904
-18.229856,227.200007,65.501952
-11.842478,223.000002,65.502584
-22.139622,229.400015,65.509868
-3.371825,223.000002,65.510452
121.942174,192.600012,65.510756
-21.517734,229.400015,65.511394
117.162561,193.300009,65.512949
126.198733,191.900015,65.513098
112.380993,193.900013,65.514201
-20.273831,229.400015,65.514332
109.727323,194.200015,65.516585
-7.679743,225.100017,65.518534
-56.798959,300.800014,65.520877
113.458478,193.800008,65.522528
-55.985332,300.800014,65.524131
153.025401,300.800014,65.524238
120.877874,287.200022,65.526050
111.872137,194.000006,65.527469
104.962575,194.700015,65.528584
109.220779,194.300008,65.531594
-43.327284,223.400021,65.534157
-10.032116,223.100019,65.534359
-9.426850,223.100019,65.535074
-15.625289,225.200009,65.536535
-15.014510,225.200009,65.537632
-12.340440,221.100020,65.538782
-20.904909,229.500008,65.541440
-40.910918,223.400021,65.542334
127.852535,191.700006,65.543461
114.027739,193.800008,65.544164
104.459393,194.800007,65.546447
108.714545,194.400012,65.546924
-55.189961,300.900006,65.549159
125.737035,192.100012,65.549505
-4.016494,225.200009,65.550274
102.343369,195.000005,65.553594
110.855544,194.200015,65.555084
124.684811,192.300010,65.555501
-11.369410,308.000016,65.555710
116.708934,193.500006,65.556705
124.160004,192.400014,65.559226
-13.063976,223.200011,65.559524
-12.458550,223.200011,65.560442
108.208609,194.500005,65.562588
123.636007,192.500007,65.563416
-8.825520,223.200011,65.565127
116.195214,193.600011,65.566951
-42.138022,223.500013,65.567571
-33.053321,223.400021,65.568429
-41.533646,223.500013,65.569621
117.798901,193.400013,65.571296
-49.489382,300.900006,65.571344
101.841521,195.100009,65.572912
121.744776,287.400007,65.574098
111.421025,194.200015,65.574872
-3.944562,221.200013,65.576768
115.682030,193.700004,65.577590
-39.115745,223.500013,65.577799
105.574334,194.800007,65.578336
107.702935,194.600010,65.578580
-36.697203,223.500013,65.585911
-18.870820,227.500010,65.587121
-36.092463,223.500013,65.587926
115.169334,193.800008,65.588617
-11.252665,223.300004,65.591544
-10.646897,223.300004,65.592343
-28.481275,225.500011,65.592450
-16.250461,225.400019,65.593594
106.132936,194.800007,65.594757
-42.761490,223.600006,65.594864
107.197535,194.700015,65.594888
118.375790,193.400013,65.596169
104.009736,195.000005,65.598243
176.903486,299.500012,65.598810
114.657140,193.900013,65.600026
123.176742,192.700005,65.602124
123.354220,287.500024,65.602225
-40.342817,223.600006,65.603054
176.099932,299.600005,65.603960
-39.738050,223.600006,65.605098
119.989491,193.200004,65.605527
-7.078358,225.400019,65.606409
122.654045,192.800009,65.607232
-4.631742,225.400019,65.608162
-38.528404,223.600006,65.609175
-37.923515,223.600006,65.611219
106.692374,194.800007,65.611506
-20.730387,227.600002,65.611762
119.471371,193.300009,65.613294
-14.893429,223.400021,65.615243
177.767205,299.500012,65.615916
-14.287542,223.400021,65.616298
103.506613,195.100009,65.616697
-13.681625,223.400021,65.617299
-54.430091,301.200008,65.617752
-35.503557,223.600006,65.619260
-53.615099,301.200008,65.620959
118.953872,193.400013,65.621483
122.613144,287.600017,65.622306
-52.800018,301.200008,65.624148
-51.984835,301.200008,65.627325
124.181509,287.600017,65.627944
-32.477635,223.600006,65.629053
179.438972,299.400020,65.629292
178.632331,299.500012,65.633374
-7.552390,221.399999,65.633500
-50.354195,301.200008,65.633613
103.003669,195.200014,65.635431
-4.548866,221.399999,65.635741
-6.469592,225.500011,65.636015
-21.356785,227.700019,65.639138
-20.122172,227.700019,65.642029
-37.335277,223.699999,65.642577
-19.504809,227.700019,65.643424
-15.506224,223.500013,65.643525
-34.914067,223.699999,65.650600
-16.876681,225.600004,65.650606
-34.308654,223.699999,65.652573
125.009692,287.700009,65.653819
-8.230994,223.500013,65.653878
-33.703199,223.699999,65.654528
125.405920,192.500007,65.654576
-26.060945,225.700021,65.657669
-1.039835,243.600011,65.658790
-31.886572,223.699999,65.660316
182.796812,299.200010,65.660471
-9.959439,221.500015,65.660590
-8.156737,221.500015,65.662575
-6.954851,221.500015,65.663689
-6.353886,221.500015,65.664178
-5.860269,225.600004,65.665579
-23.002991,225.700021,65.665847
-5.248066,225.600004,65.666002
-21.983680,227.800012,65.666461
-36.101943,304.900026,65.667707
-51.203543,301.400018,65.674067
-27.907565,225.800014,65.681517
-3.987657,223.600006,65.686435
-43.634304,221.900010,65.690368
-22.611082,227.900004,65.693754
-5.755506,221.600008,65.694267
-52.399492,249.200010,65.695477
-16.126744,223.699999,65.701139
96.178788,195.900011,65.702277
96.992856,194.200015,65.703499
182.107496,299.500012,65.706962
-17.503957,225.800014,65.707582
181.296957,299.600005,65.709931
-7.631411,223.699999,65.713221
180.487382,299.700022,65.713269
-7.024448,223.699999,65.713763
-12.975244,221.700001,65.715712
-31.308913,223.900008,65.720928
-8.765563,221.700001,65.721238
-5.156571,221.700001,65.724313
-30.096439,223.900008,65.724665
100.561476,284.800005,65.732682
-18.124260,225.900006,65.735424
95.591646,281.500006,65.737075
-15.387186,221.800017,65.741318
-14.785706,221.800017,65.742379
-26.707861,225.999999,65.743214
-4.598519,223.800015,65.744871
128.785872,192.200005,65.748477
-30.716410,224.000001,65.752155
-42.438787,321.500015,65.752828
-41.566852,321.500015,65.755659
47.536832,218.200016,65.757120
184.730053,299.500012,65.766191
183.915663,299.600005,65.768003
-27.332181,226.100016,65.770561
126.013744,288.200021,65.771168
-6.423208,223.900008,65.773016
-14.190592,221.900010,65.773058
-5.815675,223.900008,65.773469
-13.588783,221.900010,65.774041
1.625472,246.500015,65.776139
-68.461883,298.500013,65.776974
-10.579374,221.900010,65.778404
-29.516479,224.100018,65.785211
186.424303,299.400020,65.785712
185.607481,299.500012,65.786737
-18.753368,226.100016,65.792322
-5.210455,224.000001,65.803254
-20.601439,226.200008,65.817297
-19.988216,226.200008,65.818703
-19.374955,226.200008,65.820080
101.473796,285.200024,65.824348
96.645123,194.600010,65.826809
-16.010265,222.100019,65.829116
-22.848569,224.200010,65.833151
157.533538,298.200011,65.836263
-37.500933,309.600019,65.840662
126.932931,288.500023,65.843040
-21.224006,226.300001,65.844947
-28.935391,224.300003,65.845734
104.596162,285.300016,65.845770
103.824246,285.300016,65.846026
103.052473,285.300016,65.846390
-16.770758,224.200010,65.846819
102.280843,285.300016,65.846860
100.387108,194.400012,65.848839
129.299510,288.500023,65.854329
-22.460724,226.400018,65.871054
-21.847072,226.400018,65.872562
128.554749,288.600016,65.873212
-0.379563,244.400001,65.874469
0.284125,244.400001,65.874481
158.475018,298.400021,65.890831
105.442131,285.500002,65.891778
127.809882,288.700008,65.892267
156.856859,298.500013,65.892369
-43.404931,322.200012,65.893120
187.555027,299.800014,65.894985
-18.002646,224.400020,65.903109
130.179441,288.700008,65.904111
-17.394200,224.400020,65.904361
-18.767206,335.300016,65.916532
-18.619353,224.500012,65.931195
106.289363,285.700011,65.937907
109.384692,285.700011,65.938902
110.159028,285.700011,65.939450
47.076163,218.800020,65.939742
110.933590,285.700011,65.940124
159.418511,298.600006,65.945673
-16.642421,222.500014,65.946525
46.314701,220.800018,65.950692
112.227952,193.600011,65.955788
126.561391,191.500008,65.956622
-19.236568,224.600005,65.959245
-30.879834,302.400017,65.960664
107.100368,285.800004,65.961051
107.874370,285.800004,65.961242
108.648562,285.800004,65.961552
-30.058956,302.400017,65.962869
111.747491,285.800004,65.964001
101.094162,194.700015,65.964401
-28.378439,224.700022,65.964967
-29.237998,302.400017,65.965033
111.719584,193.700004,65.969038
-25.943783,224.700022,65.971911
123.408890,192.100012,65.973932
-33.353025,302.500010,65.975559
110.139978,193.900013,65.976912
112.794971,193.600011,65.976971
-32.532114,302.500010,65.977913
-31.711119,302.500010,65.980220
96.345103,195.100009,65.984160
-19.854292,224.700022,65.987259
112.562180,285.900021,65.988016
-28.426361,302.500010,65.988952
121.843910,192.400014,65.989041
109.633338,194.000006,65.991563
121.323776,192.500007,65.994990
110.704017,193.900013,65.996623
113.362980,193.600011,65.998530
116.551960,193.200004,65.999687
131.151676,289.100003,65.999740
160.364068,298.800015,66.000807
120.804358,192.600012,66.001391
163.619399,298.600006,66.003335
-17.865014,222.700000,66.003388
123.996687,192.100012,66.004199
-17.261212,222.700000,66.004610
116.038728,193.300009,66.009891
113.377655,286.000013,66.012156
-27.614111,302.600026,66.012830
122.950375,192.300010,66.012836
-21.081877,224.800014,66.013813
-20.472522,224.800014,66.015244
111.268997,193.900013,66.016710
-34.196451,302.700019,66.016787
115.526032,193.400013,66.020495
119.250262,192.900014,66.023219
102.252960,194.800007,66.027063
126.165295,191.800010,66.027123
124.585938,192.100012,66.034961
162.886250,298.800015,66.035426
164.517701,298.700023,66.037863
-22.310397,224.900007,66.040224
109.183264,194.200015,66.040576
-21.700844,224.900007,66.041720
120.348072,192.800009,66.042483
101.751387,194.900012,66.046417
119.829738,192.900014,66.049749
132.035291,289.300013,66.049910
122.492051,192.500007,66.052169
104.421544,194.700015,66.054296
113.990891,193.700004,66.054595
132.828665,289.300013,66.054606
108.676970,194.300008,66.055894
161.311722,299.000025,66.056246
103.362608,194.800007,66.057026
117.186975,193.300009,66.058236
127.289224,191.700006,66.058862
114.233840,286.200023,66.059512
-19.089647,222.900009,66.060114
115.011001,286.200023,66.060853
-18.485369,222.900009,66.061401
115.788436,286.200023,66.062319
118.795037,193.100011,66.065562
-67.950386,299.800014,66.066736
162.153006,299.000025,66.067797
107.104766,194.500005,66.069853
104.978657,194.700015,66.070348
108.170998,194.400012,66.071552
165.417612,298.800015,66.072685
118.278623,193.200004,66.074091
-44.402257,323.100019,66.074258
114.561248,193.700004,66.076952
-26.818949,302.900004,66.080278
117.762816,193.300009,66.083050
-27.819273,225.100017,66.084170
-46.583179,303.200006,66.084802
-11.316856,306.600022,66.086525
105.536532,194.700015,66.086727
107.665277,194.500005,66.087520
-19.702724,223.000002,66.088408
125.768876,192.100012,66.098058
115.132701,193.700004,66.099721
-35.064009,303.100014,66.101563
106.095183,194.700015,66.103417
-51.442975,261.400008,66.104448
103.971863,194.900012,66.106385
102.912974,195.000005,66.109693
116.647613,286.400008,66.110098
-22.734950,223.100019,66.110885
117.426169,286.400008,66.111845
-20.316312,223.100019,66.116691
-26.611596,225.200009,66.117013
106.654632,194.700015,66.120446
46.612224,219.400001,66.122377
156.597519,299.600005,66.125280
127.953184,191.800010,66.127247
166.374803,299.000025,66.129947
-43.325260,223.400021,66.136426
118.246317,286.500025,66.136843
119.025767,286.500025,66.138899
167.222416,299.000025,66.143292
-27.233720,225.300002,66.144633
-20.930403,223.200011,66.144919
-62.343013,300.100017,66.156048
168.071115,299.000025,66.156948
-36.678785,223.400021,66.158539
-36.074328,223.400021,66.160518
125.372136,192.400014,66.169429
-33.051392,223.400021,66.170257
168.920982,299.000025,66.170919
-63.986266,300.200009,66.171455
96.905190,194.000006,66.172409
-63.175070,300.200009,66.174769
-67.252642,300.300026,66.180229
-61.552423,300.200009,66.181403
-37.904540,223.500013,66.184151
-60.740972,300.200009,66.184717
-37.299889,223.500013,66.186154
119.889152,286.700010,66.187268
-64.818966,300.300026,66.190177
-26.039255,303.400016,66.191316
-22.160104,223.400021,66.201282
-21.554650,223.400021,66.202754
-31.856176,223.500013,66.203672
-66.463614,300.400019,66.205573
-35.945496,303.600025,66.208112
-65.652120,300.400019,66.208893
-59.949404,300.300026,66.210079
-76.246852,300.600004,66.210622
-59.137511,300.300026,66.213369
-46.916762,300.100017,66.216874
-35.501578,223.600006,66.221720
99.370378,283.600020,66.223735
-34.291363,223.600006,66.225630
-33.686194,223.600006,66.227567
-32.475728,223.600006,66.231406
-75.460720,300.700021,66.235816
-58.344954,300.400019,66.238713
-39.148721,223.699999,66.239363
-38.543609,223.699999,66.241366
100.194418,194.000006,66.251379
-34.912094,223.699999,66.253293
-42.192551,223.800015,66.258878
120.796072,287.000012,66.258889
-74.673957,300.800014,66.261023
-57.551748,300.500011,66.264039
-30.673414,223.699999,66.266644
-39.771566,223.800015,66.266960
-56.739050,300.500011,66.267312
-55.926245,300.500011,66.270560
-40.476865,319.800019,66.275406
-41.000441,223.900008,66.292518
-31.293055,223.800015,66.294408
-40.394908,223.900008,66.294539
-30.081159,223.800015,66.298109
121.662605,287.200022,66.307592
123.228371,287.200022,66.313112
-42.835954,224.000001,66.316062
124.011815,287.200022,66.316116
-55.150044,300.700021,66.317922
-41.624525,224.000001,66.320109
-21.398839,221.800017,66.325760
122.487938,287.300014,66.333354
-25.849745,223.900008,66.339976
-54.354584,300.800014,66.343206
96.337432,196.200013,66.344589
47.535065,218.200016,66.345698
-53.540695,300.800014,66.346407
95.386809,280.900002,66.356707
-29.501486,224.000001,66.359168
-49.469849,300.800014,66.362166
124.882555,287.400007,66.365474
178.411555,299.100018,66.369051
-51.929903,300.900006,66.374838
176.802421,299.300003,66.378242
-50.300920,300.900006,66.381121
-28.907797,224.100018,66.390598
-52.761775,301.000023,66.393721
177.665937,299.300003,66.395652
96.706802,194.700015,66.398925
181.761968,298.900008,66.399455
100.952590,194.400012,66.402161
179.337275,299.200010,66.409391
115.822494,192.900014,66.417140
182.633209,298.900008,66.419125
-51.149434,301.100016,66.422111
115.310574,193.000007,66.427702
112.133145,193.400013,66.430432
126.462483,191.300011,66.435462
-42.317143,320.600009,66.435587
116.395295,192.900014,66.441423
111.625004,193.500006,66.443652
-22.039600,222.200012,66.443926
176.175475,299.700022,66.449887
110.046041,193.700004,66.451162
123.310602,191.900015,66.451925
112.699962,193.400013,66.451925
122.788274,192.000008,66.456366
100.490189,284.600019,66.456550
122.266757,192.100012,66.461289
109.539640,193.800008,66.465807
121.746004,192.200005,66.466665
110.609865,193.700004,66.471177
-22.651923,222.300005,66.472346
113.267803,193.400013,66.473812
-41.473544,320.800018,66.479862
-28.338775,224.400020,66.481251
123.898292,191.900015,66.482592
125.885952,287.900019,66.484290
101.609278,194.600010,66.484964
96.307486,195.000005,66.489226
181.194890,299.400020,66.491234
111.174631,193.700004,66.491562
119.670296,192.600012,66.492718
-43.226916,320.900011,66.494876
102.162778,194.600010,66.499740
119.153094,192.700005,66.500336
126.066494,191.600013,66.506386
121.289062,192.400014,66.507077
105.894184,194.300008,66.509163
-27.743366,224.500012,66.512632
120.769477,192.500007,66.513354
-26.527175,224.500012,66.516072
114.406538,193.400013,66.518784
104.449356,284.900022,66.524601
101.366472,284.900022,66.525996
105.390561,194.400012,66.526443
47.074375,218.800020,66.529900
113.895512,193.500006,66.530478
-21.272002,220.500016,66.530639
117.090487,193.100011,66.535038
180.505943,299.700022,66.538924
114.977503,193.400013,66.541868
-27.147377,224.600005,66.543996
104.887140,194.500005,66.544020
107.012260,194.300008,66.544050
103.714788,285.000014,66.548139
102.943718,285.000014,66.548431
124.552321,192.000008,66.548443
102.172816,285.000014,66.548842
102.769768,194.700015,66.548997
109.146035,194.100010,66.549361
183.813012,299.400020,66.550320
120.313048,192.700005,66.554612
126.804495,288.200021,66.557097
106.507611,194.400012,66.560686
-68.435681,298.400021,66.561002
104.383922,194.600010,66.561908
107.572544,194.300008,66.562009
-11.256924,305.000019,66.565973
186.321080,299.200010,66.568542
185.504425,299.300003,66.569477
184.688890,299.400020,66.570818
105.294347,285.100007,66.571224
127.787447,191.500008,66.573095
127.256680,191.600013,66.573471
118.759584,193.000007,66.577375
103.880894,194.700015,66.580099
108.133674,194.300008,66.580302
127.636552,288.300014,66.583896
118.243051,193.100011,66.585815
128.425038,288.300014,66.587782
117.727113,193.200004,66.594672
-44.165704,321.400023,66.595572
-39.284652,317.200017,66.596824
103.378022,194.800007,66.598582
108.695650,194.300008,66.598934
157.438254,298.000026,66.606200
125.735688,192.000008,66.612428
125.208426,192.100012,66.614842
106.140602,285.300016,66.617954
129.303610,288.500023,66.638047
158.326328,298.100019,66.639155
156.709313,298.200011,66.640550
106.988108,285.500002,66.664797
109.308636,285.500002,66.665947
110.082555,285.500002,66.666573
-30.826545,301.900005,66.667300
111.631107,285.500002,66.668212
47.946697,217.400002,66.687202
107.799172,285.600019,66.688412
130.183733,288.700008,66.688502
108.572936,285.600019,66.688794
110.895550,285.600019,66.690689
-30.017015,302.000022,66.691601
112.445104,285.600019,66.692579
-29.197192,302.000022,66.693759
159.269261,298.300004,66.694760
-45.107090,321.900010,66.696209
-27.557325,302.000022,66.697925
-28.386691,302.100015,66.717947
-26.746139,302.100015,66.722023
187.576807,299.800014,66.723806
160.160613,298.400021,66.728306
131.065416,288.900018,66.739148
113.299537,285.800004,66.740429
96.967602,194.100010,66.743678
131.857407,288.900018,66.743791
-34.148836,302.300024,66.746300
132.649863,288.900018,66.748613
-31.687874,302.300024,66.753376
100.156903,193.900013,66.755301
-10.203803,298.500013,66.761267
114.115405,285.900021,66.765064
-33.339623,302.400017,66.770786
-32.519028,302.400017,66.773140
163.522172,298.400021,66.775936
-34.992129,302.500010,66.788006
114.932072,286.000013,66.789842
-24.308904,302.400017,66.793978
46.674141,219.700003,66.805333
-67.879105,299.500012,66.809648
115.749562,286.100006,66.814756
-46.065363,322.500014,66.817516
123.541975,191.300011,66.820651
161.215329,298.800015,66.829234
164.475298,298.600006,66.833353
162.056327,298.800015,66.841012
118.124521,286.200023,66.843671
-76.040798,299.800014,66.844338
118.903291,286.200023,66.845822
165.319860,298.600006,66.846311
96.299911,196.100008,66.852474
162.898338,298.800015,66.853076
156.398308,299.200010,66.853923
-25.977245,302.700019,66.856486
123.084152,191.500008,66.859448
116.608608,286.300015,66.863173
122.562563,191.600013,66.863799
117.387056,286.300015,66.865027
96.619678,194.500005,66.868740
-30.065894,223.699999,66.870987
176.483500,301.700020,66.876501
166.221189,298.700023,66.881984
-25.825000,223.699999,66.883099
124.194694,191.400003,66.887134
-47.631055,299.500012,66.890472
-21.988554,221.700001,66.891277
119.766033,286.400008,66.894847
167.068231,298.700023,66.895574
119.449031,192.200005,66.899657
122.105432,191.800010,66.903502
112.038636,193.200004,66.904348
118.932581,192.300010,66.907209
100.915110,194.300008,66.907442
167.916429,298.700023,66.909486
-64.729315,299.900007,66.912097
118.416774,192.400014,66.915190
-63.919008,299.900007,66.915405
116.299260,192.700005,66.916621
-74.497002,300.100017,66.917545
-63.108617,299.900007,66.918725
-33.123460,223.900008,66.921508
-32.517403,223.900008,66.923386
-67.182159,300.000024,66.924489
-25.180098,303.000021,66.924661
-31.911314,223.900008,66.925269
115.786684,192.800009,66.926700
-30.699003,223.900008,66.928959
-29.486519,223.900008,66.932571
-12.153554,306.700015,66.936082
-75.332075,300.200009,66.936666
115.274668,192.900014,66.937190
-27.061063,223.900008,66.939557
-26.454595,223.900008,66.941237
121.648479,192.000008,66.943645
120.630217,286.600018,66.944033
-62.318927,300.000024,66.944343
168.822253,298.800015,66.946131
-61.508107,300.000024,66.947663
125.902283,191.300011,66.950029
-66.393930,300.100017,66.950089
-60.697204,300.000024,66.950971
111.588395,193.400013,66.952169
-65.583247,300.100017,66.953403
-59.886211,300.000024,66.954267
-31.319159,224.000001,66.957009
-59.075141,300.000024,66.957557
96.220690,194.800007,66.959649
112.663543,193.300009,66.960818
120.091069,192.300010,66.962194
-28.893119,224.000001,66.964251
47.555128,218.300009,66.964978
-28.286502,224.000001,66.965997
-27.679846,224.000001,66.967732
-58.283395,300.100017,66.983163
133.904755,289.900017,66.984707
124.914694,191.600013,66.989160
-56.660259,300.100017,66.989702
120.672238,192.300010,66.990393
101.571810,194.500005,66.991043
121.495807,286.800003,66.993362
110.066032,193.700004,66.993856
95.973790,280.400014,66.996068
123.059726,286.800003,66.999108
105.299067,194.200015,66.999346
106.360805,194.100010,66.999620
111.137986,193.600011,67.000312
107.424688,194.000006,67.001206
123.842239,286.800003,67.002219
-34.381440,224.200010,67.007345
109.559286,193.800008,67.008460
-57.491022,300.200009,67.008758
-33.774665,224.200010,67.009270
-22.630058,222.100019,67.010510
116.994321,192.900014,67.011160
110.630238,193.700004,67.014199
-55.867171,300.200009,67.015284
105.856931,194.200015,67.016578
104.795897,194.300008,67.016941
114.882052,193.200004,67.017442
106.920016,194.100010,67.017508
113.290048,193.400013,67.017686
127.091718,191.300011,67.017990
-55.055106,300.200009,67.018521
121.254730,192.300010,67.019069
122.320223,286.900020,67.019516
118.085337,192.800009,67.027897
114.370430,193.300009,67.028689
104.292941,194.400012,67.034841
113.859308,193.400013,67.040324
124.712062,287.000012,67.052239
103.790176,194.500005,67.053044
126.628458,191.500008,67.053759
108.040965,194.100010,67.054325
102.732360,194.600010,67.055893
125.571942,191.700006,67.056799
109.109104,194.000006,67.057973
-11.200690,303.500009,67.058724
-54.279089,300.400019,67.066401
-53.466296,300.400019,67.069602
117.630804,193.000007,67.071438
103.287566,194.600010,67.071545
108.602715,194.100010,67.073256
102.230346,194.700015,67.074990
127.755594,191.400003,67.087865
95.351833,280.800009,67.092586
-35.034996,224.500012,67.095071
-48.603806,300.500011,67.110765
-51.874965,300.600004,67.120624
178.250694,298.800015,67.125273
-52.706009,300.700021,67.139786
179.115987,298.800015,67.143732
-50.264370,300.700021,67.149240
47.094139,218.900013,67.150748
-49.450308,300.700021,67.152345
99.964631,193.500006,67.154878
100.383627,284.300017,67.155731
-40.486762,319.900012,67.160946
-51.095331,300.800014,67.168438
125.714552,287.500024,67.172527
-43.102789,320.000005,67.173439
96.830422,193.800008,67.177147
-35.690138,224.800014,67.182785
-23.294616,222.700000,67.190027
-42.248300,320.100021,67.197311
182.531047,298.700023,67.198920
181.720793,298.800015,67.201406
-43.997869,320.200014,67.212504
177.683687,299.300003,67.219496
-41.393164,320.200014,67.221135
126.588166,287.700009,67.222899
101.259208,284.600019,67.226052
123.315108,190.900004,67.226219
176.074922,299.500012,67.229289
-44.879916,320.300007,67.230546
176.937962,299.500012,67.246664
102.835035,284.700012,67.248893
102.064836,284.700012,67.249238
127.419031,287.800002,67.250091
180.223680,299.200010,67.252475
128.206336,287.800002,67.254096
183.526468,298.900008,67.264336
181.093109,299.200010,67.271727
105.183566,284.800005,67.272162
104.412591,284.800005,67.272174
105.954707,284.800005,67.272264
103.641796,284.800005,67.272294
99.790120,284.800005,67.274475
-12.065436,304.500008,67.278761
-45.790958,320.600009,67.290509
122.922301,191.200006,67.300397
-46.856704,305.000019,67.301095
122.401142,191.300011,67.304635
-21.328485,221.100020,67.306870
184.463000,299.000025,67.307681
126.661336,190.600014,67.320061
129.128551,288.100004,67.328399
47.989151,217.600012,67.335606
96.532780,194.300008,67.337757
115.059781,192.500007,67.341596
106.838465,285.100007,67.343348
121.944451,191.500008,67.344511
121.424580,191.600013,67.349684
127.256846,190.600014,67.355251
126.199710,190.800011,67.356032
115.631104,192.500007,67.366147
107.648551,285.200024,67.367309
109.194386,285.200024,67.368358
109.967625,285.200024,67.369062
119.352400,192.000008,67.374980
100.825918,194.100010,67.377788
130.007768,288.300014,67.379528
118.836093,192.100012,67.382431
-68.455344,298.500013,67.389566
116.203570,192.500007,67.391133
108.459377,285.300016,67.391396
-46.732643,321.100020,67.392421
125.738454,191.000009,67.392498
185.525727,299.300003,67.396480
124.161851,191.300011,67.399091
119.931841,192.000008,67.403084
-47.179517,301.800013,67.407203
112.002420,193.100011,67.412478
-30.793676,301.600003,67.415810
110.818744,285.400009,67.417139
111.593008,285.400009,67.418116
157.448828,298.000026,67.420477
114.667976,192.800009,67.422378
-27.518791,301.600003,67.424357
121.031594,191.900015,67.425591
101.430154,194.200015,67.427480
96.134108,194.600010,67.429274
130.888569,288.500023,67.430854
-37.922239,313.100004,67.431158
120.512581,192.000008,67.431659
114.157128,192.900014,67.433596
112.569141,193.100011,67.434627
131.679642,288.500023,67.435622
-29.985011,301.700020,67.440391
132.471204,288.500023,67.440587
-29.166052,301.700020,67.442548
112.406850,285.500002,67.442834
113.181865,285.500002,67.444068
133.263278,288.500023,67.445749
-26.708743,301.700020,67.448729
158.337188,298.100019,67.453939
113.136899,193.100011,67.457181
118.443561,192.400014,67.460448
111.552119,193.300009,67.460519
186.529636,299.500012,67.463225
124.816883,191.400003,67.466879
-28.356418,301.800013,67.467010
156.772196,298.300004,67.477787
113.705671,193.100011,67.480141
-27.035204,223.699999,67.482144
99.669236,192.900014,67.482585
187.411261,299.500012,67.485350
105.765438,194.000006,67.488998
104.704905,194.100010,67.489094
106.828058,193.900013,67.490214
114.036977,285.700011,67.492688
-25.906661,301.900005,67.495388
-31.654143,302.000022,67.502970
105.262041,194.100010,67.506272
106.323874,194.000006,67.506838
104.202199,194.200015,67.506999
107.387865,193.900013,67.508739
111.101615,193.500006,67.508900
159.280431,298.300004,67.510319
109.522688,193.700004,67.516649
114.853239,285.800004,67.517829
-34.123817,302.100015,67.518234
-21.997036,221.800017,67.518550
115.629864,285.800004,67.519486
-11.140771,301.900005,67.520857
103.699684,194.300008,67.525214
107.948542,193.900013,67.527604
109.016216,193.800008,67.531568
125.474083,191.500008,67.535257
110.086358,193.700004,67.536950
96.593493,193.300009,67.539370
-33.315188,302.200007,67.542988
160.172033,298.400021,67.544365
116.447532,285.900021,67.544913
-32.495183,302.200007,67.545354
108.510053,193.900013,67.546833
117.225027,285.900021,67.546868
102.140641,194.500005,67.546940
117.019820,192.900014,67.556643
102.695191,194.500005,67.562556
96.557277,196.600008,67.566299
118.044090,286.000013,67.572594
118.111718,192.800009,67.573887
118.822491,286.000013,67.574853
103.250444,194.500005,67.578483
46.799833,220.300007,67.581958
117.595804,192.900014,67.582566
110.708058,193.800008,67.592502
-74.344891,299.500012,67.592782
119.643021,286.100006,67.600882
-26.476562,224.100018,67.604476
-25.128359,302.400017,67.609090
47.597015,218.500018,67.615759
-10.089415,295.200014,67.617917
-67.875814,299.500012,67.618603
161.173129,298.700023,67.623997
162.801635,298.600006,67.625666
120.464456,286.200023,67.627090
-76.012331,299.700022,67.631650
-58.953702,299.400020,67.632276
162.014151,298.700023,67.636007
167.705739,298.300004,67.637962
163.644397,298.600006,67.638272
-56.524849,299.400020,67.642081
166.914308,298.400021,67.646462
164.488232,298.600006,67.651188
-59.783107,299.500012,67.651576
166.123450,298.500013,67.655289
-58.163595,299.500012,67.658138
-57.353699,299.500012,67.661411
99.228841,283.200002,67.662758
165.333140,298.600006,67.664415
-55.733663,299.500012,67.667913
-64.682841,299.700022,67.676944
121.329105,286.400008,67.677075
-24.331197,302.700019,67.678016
-63.873070,299.700022,67.680246
-63.063228,299.700022,67.683560
-39.418164,318.300009,67.688131
-67.134064,299.800014,67.689621
-66.324258,299.800014,67.692918
-60.633206,299.700022,67.693466
-54.941845,299.600005,67.693740
-65.514374,299.800014,67.696220
-23.516802,302.800012,67.702168
-75.278741,300.000024,67.702478
122.152603,286.500025,67.703611
-62.274075,299.800014,67.709440
-61.463797,299.800014,67.712748
-22.669344,222.500014,67.730182
122.976995,286.600018,67.730302
123.759139,286.600018,67.733538
156.565213,299.500012,67.738903
-54.167467,299.800014,67.742151
168.780303,298.700023,67.743176
-53.356314,299.800014,67.745346
124.585128,286.700010,67.760575
126.497078,190.300012,67.761087
125.969696,190.400004,67.761600
96.396399,194.000006,67.771029
123.347008,190.900004,67.772025
47.113949,219.000006,67.772156
122.825134,191.000009,67.775637
119.131756,191.600013,67.778897
118.616188,191.700006,67.786270
-12.009026,303.100014,67.788333
125.509167,190.600014,67.798221
100.206530,283.800006,67.805535
100.685012,193.800008,67.812347
114.964736,192.300010,67.814714
122.368073,191.200006,67.815202
121.327758,191.400003,67.824805
116.047835,192.200005,67.829680
-52.615184,300.200009,67.838925
115.535903,192.300010,67.839628
-44.708806,319.100022,67.841142
-43.843791,319.100022,67.844093
121.911204,191.400003,67.855215
125.543249,287.100005,67.858702
114.513659,192.500007,67.860740
-51.820034,300.300026,67.864692
114.003301,192.600012,67.871904
119.835436,191.800010,67.878139
111.908531,192.900014,67.885262
126.371968,287.200022,67.886108
-43.005610,319.300008,67.889529
127.157366,287.200022,67.890054
-51.024246,300.400019,67.890447
-49.397880,300.400019,67.896676
-47.014531,311.500025,67.896920
96.047729,194.400012,67.898083
178.954959,298.500013,67.898917
-48.584560,300.400019,67.899758
118.286026,192.100012,67.900127
120.934927,191.700006,67.901158
124.654281,191.100013,67.908466
124.129426,191.200006,67.910993
-50.227821,300.500011,67.916167
-46.496737,319.500017,67.920154
-45.630839,319.500017,67.923188
101.152015,284.300017,67.924523
101.393175,194.100010,67.932570
-27.826408,225.200009,67.932934
111.458445,193.100011,67.933530
175.798309,299.000025,67.939723
179.881454,298.600006,67.940831
128.032315,287.400007,67.941469
125.245571,191.100013,67.941993
120.478845,191.900015,67.942524
112.533379,193.000007,67.942947
107.240534,193.600011,67.945886
104.265916,284.400010,67.947561
105.035913,284.400010,67.947626
105.806100,284.400010,67.947811
101.956916,284.400010,67.948037
178.269124,298.800015,67.948365
-11.077169,300.200009,67.951578
113.611221,192.900014,67.953920
-47.392181,319.700027,67.959601
106.736350,193.700004,67.962170
96.456701,193.000007,67.969573
103.532481,284.500003,67.971498
102.762544,284.500003,67.971659
106.613934,284.500003,67.971998
96.280956,281.300020,67.972040
-42.192647,319.700027,67.977464
106.232417,193.800008,67.978787
117.893398,192.400014,67.979008
111.008155,193.300009,67.982155
101.998699,194.200015,67.983121
99.632388,192.800009,67.983603
108.361697,193.600011,67.984551
-33.951962,300.600004,67.994910
107.422531,284.600019,67.996311
116.863692,192.600012,67.996663
102.552676,194.200015,67.998981
107.856369,193.700004,68.000144
182.490313,298.600006,68.000698
113.159823,193.100011,68.001056
176.778436,299.200010,68.002838
105.225289,194.000006,68.012995
104.165375,194.100010,68.013442
103.107381,194.200015,68.015158
-47.850659,300.900006,68.015832
48.053703,217.900014,68.016315
128.953624,287.700009,68.016708
108.231843,284.700012,68.020737
109.003639,284.700012,68.021399
117.439222,192.600012,68.022943
109.486413,193.600011,68.024671
180.931127,298.900008,68.028671
104.722059,194.100010,68.030584
105.783260,194.000006,68.030798
103.662837,194.200015,68.031657
108.979857,193.700004,68.039548
177.701759,299.300003,68.043631
-41.364488,320.000005,68.044090
110.050154,193.600011,68.045288
109.814203,284.800005,68.046087
181.801605,298.900008,68.048638
153.203917,301.100016,68.052882
110.614824,193.600011,68.066287
-40.509298,320.100021,68.068159
132.200825,287.900019,68.083221
183.547294,298.900008,68.089807
97.213829,281.800008,68.092048
129.877019,288.000011,68.092144
110.664368,285.000014,68.094796
96.569330,196.600008,68.109959
111.476767,285.100007,68.119740
130.711818,288.100004,68.120497
113.024628,285.100007,68.122250
131.501997,288.100004,68.125409
184.484220,299.000025,68.133795
112.289953,285.200024,68.144828
-12.900707,304.700017,68.145204
113.878798,285.300016,68.171507
116.205072,285.300016,68.176770
-54.036927,294.700003,68.178177
-29.134914,301.400018,68.189591
-27.498510,301.400018,68.193763
-26.680204,301.400018,68.195772
114.694118,285.400009,68.197018
-25.861830,301.400018,68.197727
115.469813,285.400009,68.198764
126.333213,190.000010,68.200952
117.022085,285.400009,68.202716
47.595379,218.500018,68.205202
-30.781233,301.500010,68.207836
-29.962942,301.500010,68.210042
157.406783,297.900009,68.212062
122.143376,190.800011,68.218464
-25.051695,301.500010,68.222260
159.078205,297.900009,68.234468
98.184329,282.400012,68.236327
-28.335539,301.600003,68.236947
126.928008,190.000010,68.237054
96.309918,193.800008,68.238163
-21.433200,222.200012,68.239862
-56.351691,298.500013,68.244839
-11.944699,301.500010,68.244928
158.295155,298.000026,68.246025
117.881227,285.600019,68.252718
121.687257,191.000009,68.258655
187.308633,299.300003,68.268389
-33.268711,301.800013,68.268758
185.671389,299.500012,68.269396
-55.562955,298.600006,68.270940
-31.630889,301.800013,68.273437
118.700242,285.700011,68.278974
100.596297,193.600011,68.280858
119.478285,285.700011,68.281490
123.314762,190.800011,68.282586
120.256686,285.700011,68.284172
122.792661,190.900004,68.286026
-57.197249,298.700023,68.287325
186.551738,299.500012,68.291485
160.022688,298.100019,68.291920
156.782722,298.300004,68.292862
-32.460588,301.900005,68.293732
-54.773581,298.700023,68.297023
121.231329,191.200006,68.299305
-58.024389,298.800015,68.306923
126.004755,190.400004,68.308938
121.077800,285.800004,68.310910
115.441024,192.100012,68.312430
-24.265067,301.900005,68.314624
114.929819,192.200005,68.322712
116.013181,192.100012,68.338138
125.543678,190.600014,68.345642
-54.001647,298.900008,68.345958
124.492037,190.800011,68.348867
-58.871675,299.000025,68.349379
160.969245,298.300004,68.349671
-68.612611,299.200010,68.355674
111.814928,192.700005,68.357337
119.222379,191.700006,68.359327
121.942461,286.000013,68.361723
161.809433,298.300004,68.361914
118.706071,191.800010,68.366557
101.251960,193.800008,68.366885
114.478636,192.400014,68.368936
-53.210753,299.000025,68.372017
-11.013576,298.500013,68.372971
162.650621,298.300004,68.374455
120.838642,191.500008,68.376106
113.968158,192.500007,68.380016
-23.468436,302.200007,68.384302
124.032521,191.000009,68.387061
163.492882,298.300004,68.387306
119.801879,191.700006,68.388230
122.765660,286.100006,68.388802
-59.719944,299.200010,68.391818
124.327946,286.100006,68.395674
106.589794,193.400013,68.398029
99.193209,283.100009,68.404859
118.251979,192.000008,68.409854
167.607772,298.100019,68.410385
96.864474,192.700005,68.412036
106.086385,193.500006,68.414646
112.439609,192.800009,68.415642
123.589790,286.200023,68.416059
120.382702,191.700006,68.417633
117.736673,192.100012,68.417960
101.856947,193.900013,68.417972
125.148499,190.900004,68.418670
-22.094780,222.800016,68.422723
164.391255,298.400021,68.423396
117.221963,192.200005,68.426490
166.025949,298.300004,68.427730
105.583227,193.600011,68.431592
116.707873,192.300010,68.435460
121.481645,283.100009,68.440318
111.422777,193.000007,68.441314
166.872513,298.300004,68.441838
102.964556,193.900013,68.450522
125.979853,286.300015,68.451071
107.204270,193.500006,68.452495
108.269596,193.400013,68.456388
47.176817,219.300008,68.456548
165.291262,298.500013,68.459809
113.576007,192.800009,68.462521
102.463198,194.000006,68.469375
125.240874,286.400008,68.471098
96.109796,194.500005,68.471706
107.764482,193.500006,68.471956
113.065886,192.900014,68.474370
108.831286,193.400013,68.476570
-60.609680,299.600005,68.479961
-76.869333,299.900007,68.483782
-52.489328,299.500012,68.489528
110.972440,193.200004,68.490165
168.625593,298.400021,68.494016
109.393907,193.400013,68.497121
-22.685103,302.700019,68.499196
